ply
format ascii 1.0
element vertex 720
property float x
property float y
property float z
property uchar red
property uchar green
property uchar blue
end_header
0.57433 0.12224 -1.00000 200 60 60
-0.11193 -0.39474 -1.00000 200 60 60
0.86040 -0.95124 -1.00000 200 60 60
-0.09441 -0.57213 -1.00000 200 60 60
0.15700 -0.09923 -1.00000 200 60 60
0.40487 -0.85353 -1.00000 200 60 60
0.06675 -0.64552 -1.00000 200 60 60
0.34131 -0.54552 -1.00000 200 60 60
0.23680 -0.87237 -1.00000 200 60 60
0.08141 -0.26333 -1.00000 200 60 60
0.77477 0.29095 -1.00000 200 60 60
-0.72764 -0.78624 -1.00000 200 60 60
0.94604 -0.61072 -1.00000 200 60 60
0.02105 -0.91239 -1.00000 200 60 60
0.67468 0.36610 -1.00000 200 60 60
-0.42454 -0.93502 -1.00000 200 60 60
0.39257 -0.25908 -1.00000 200 60 60
0.31805 -0.62106 -1.00000 200 60 60
0.21125 -0.04859 -1.00000 200 60 60
0.79345 0.33963 -1.00000 200 60 60
0.46034 -0.66536 -1.00000 200 60 60
0.97474 0.37527 -1.00000 200 60 60
-0.27405 -0.60953 -1.00000 200 60 60
0.35161 -0.42334 -1.00000 200 60 60
0.64450 -0.72050 -1.00000 200 60 60
-0.58546 -0.98528 -1.00000 200 60 60
0.09645 -0.32970 -1.00000 200 60 60
0.02821 -0.56146 -1.00000 200 60 60
0.94469 -0.13748 -1.00000 200 60 60
-0.49135 -0.77094 -1.00000 200 60 60
0.72100 0.05781 -1.00000 200 60 60
0.33953 -0.53000 -1.00000 200 60 60
0.62340 -0.10716 -1.00000 200 60 60
0.72631 -0.39210 -1.00000 200 60 60
-0.06493 -0.12657 -1.00000 200 60 60
0.24623 -0.18294 -1.00000 200 60 60
0.82531 0.53212 -1.00000 200 60 60
-0.32063 -0.43723 -1.00000 200 60 60
0.91102 0.32383 -1.00000 200 60 60
0.31814 -0.56780 -1.00000 200 60 60
0.85860 0.18723 -1.00000 200 60 60
0.96199 -0.66605 -1.00000 200 60 60
-0.77448 -0.81990 -1.00000 200 60 60
0.63153 0.07625 -1.00000 200 60 60
0.32463 0.00209 -1.00000 200 60 60
0.69726 0.39264 -1.00000 200 60 60
0.65435 -0.23796 -1.00000 200 60 60
0.86359 0.26057 -1.00000 200 60 60
-0.10107 -0.82470 -1.00000 200 60 60
0.84019 -0.92380 -1.00000 200 60 60
-0.21658 -0.39941 -1.00000 200 60 60
0.52991 -0.93835 -1.00000 200 60 60
0.00872 -0.43378 -1.00000 200 60 60
0.44321 -0.45552 -1.00000 200 60 60
0.99799 0.80520 -1.00000 200 60 60
0.31628 -0.59527 -1.00000 200 60 60
0.77035 0.15844 -1.00000 200 60 60
0.93323 -0.71323 -1.00000 200 60 60
0.04404 -0.43893 -1.00000 200 60 60
0.88120 -0.25462 -1.00000 200 60 60
-0.16820 0.53211 -1.00000 200 60 60
-0.83111 0.00050 -1.00000 200 60 60
-0.91677 0.07121 -1.00000 200 60 60
-0.34028 -0.05123 -1.00000 200 60 60
-0.79319 0.38210 -1.00000 200 60 60
0.65881 0.80857 -1.00000 200 60 60
0.16212 0.85586 -1.00000 200 60 60
0.18183 0.22744 -1.00000 200 60 60
-0.91712 0.11827 -1.00000 200 60 60
0.56547 0.73093 -1.00000 200 60 60
-0.02668 0.95473 -1.00000 200 60 60
-0.87565 -0.01911 -1.00000 200 60 60
-0.05302 0.48093 -1.00000 200 60 60
-0.33686 0.70448 -1.00000 200 60 60
-0.12218 -0.07895 -1.00000 200 60 60
-0.65258 -0.44491 -1.00000 200 60 60
-0.71950 0.38857 -1.00000 200 60 60
-0.78285 0.56163 -1.00000 200 60 60
-0.43753 0.88131 -1.00000 200 60 60
-0.45399 0.00872 -1.00000 200 60 60
0.78452 0.95249 -1.00000 200 60 60
-0.53957 -0.46475 -1.00000 200 60 60
0.10970 0.85155 -1.00000 200 60 60
-0.65958 -0.27608 -1.00000 200 60 60
0.36572 0.45992 -1.00000 200 60 60
-0.41816 0.61195 -1.00000 200 60 60
0.48807 0.61598 -1.00000 200 60 60
-0.67078 -0.58096 -1.00000 200 60 60
0.12981 0.14505 -1.00000 200 60 60
-0.78335 -0.28057 -1.00000 200 60 60
-0.78158 -0.56848 -1.00000 200 60 60
0.03772 0.66957 -1.00000 200 60 60
-0.54402 0.13265 -1.00000 200 60 60
-0.25268 -0.06375 -1.00000 200 60 60
-0.49358 0.98150 -1.00000 200 60 60
-0.87363 0.64443 -1.00000 200 60 60
-0.75448 0.90774 -1.00000 200 60 60
-0.69343 -0.33489 -1.00000 200 60 60
-0.19877 0.05211 -1.00000 200 60 60
-0.60713 0.01352 -1.00000 200 60 60
-0.55481 -0.49846 -1.00000 200 60 60
0.00148 0.28928 -1.00000 200 60 60
-0.97213 -0.51282 -1.00000 200 60 60
-0.73636 0.61896 -1.00000 200 60 60
-0.75634 0.25632 -1.00000 200 60 60
-0.38852 0.44924 -1.00000 200 60 60
0.60045 0.99220 -1.00000 200 60 60
-0.43081 0.09122 -1.00000 200 60 60
-0.73788 -0.49038 -1.00000 200 60 60
-0.85513 0.34972 -1.00000 200 60 60
-0.39810 0.57907 -1.00000 200 60 60
-0.32573 -0.23697 -1.00000 200 60 60
0.42711 0.57749 -1.00000 200 60 60
-0.95028 0.16012 -1.00000 200 60 60
0.26795 0.47974 -1.00000 200 60 60
-0.71932 0.11891 -1.00000 200 60 60
-0.93246 -0.12455 -1.00000 200 60 60
-0.86605 -0.47477 -1.00000 200 60 60
0.06524 0.49571 -1.00000 200 60 60
-0.96433 -0.74604 -1.00000 200 60 60
-0.25249 -0.65886 1.00000 60 200 60
0.52682 -0.53472 1.00000 60 200 60
0.05249 -0.21203 1.00000 60 200 60
0.96864 -0.20621 1.00000 60 200 60
0.60013 -0.25163 1.00000 60 200 60
-0.03884 -0.30386 1.00000 60 200 60
0.40347 -0.09221 1.00000 60 200 60
0.96535 -0.52668 1.00000 60 200 60
0.84369 0.63314 1.00000 60 200 60
0.32199 -0.86688 1.00000 60 200 60
0.94167 -0.70765 1.00000 60 200 60
-0.09159 -0.37933 1.00000 60 200 60
0.82700 -0.84194 1.00000 60 200 60
-0.12333 -0.43056 1.00000 60 200 60
-0.72672 -0.76902 1.00000 60 200 60
-0.53993 -0.88921 1.00000 60 200 60
0.28905 -0.89324 1.00000 60 200 60
0.85131 -0.36143 1.00000 60 200 60
0.64503 -0.36402 1.00000 60 200 60
-0.45227 -0.75001 1.00000 60 200 60
-0.55005 -0.91305 1.00000 60 200 60
-0.02774 -0.52651 1.00000 60 200 60
0.97499 0.14247 1.00000 60 200 60
-0.15426 -0.90149 1.00000 60 200 60
0.25085 0.04751 1.00000 60 200 60
0.77084 0.66692 1.00000 60 200 60
0.95209 -0.84968 1.00000 60 200 60
-0.49246 -0.68715 1.00000 60 200 60
-0.56319 -0.95914 1.00000 60 200 60
0.15608 -0.55896 1.00000 60 200 60
0.82710 0.55799 1.00000 60 200 60
0.89942 -0.07214 1.00000 60 200 60
0.35926 -0.71514 1.00000 60 200 60
0.95069 0.22982 1.00000 60 200 60
-0.18754 -0.46707 1.00000 60 200 60
0.78953 -0.04425 1.00000 60 200 60
0.20016 -0.53486 1.00000 60 200 60
0.38778 -0.26722 1.00000 60 200 60
0.86959 0.24107 1.00000 60 200 60
0.50853 0.40625 1.00000 60 200 60
0.20548 -0.83270 1.00000 60 200 60
0.72759 -0.34328 1.00000 60 200 60
-0.00230 -0.69712 1.00000 60 200 60
0.32577 -0.60878 1.00000 60 200 60
0.84215 0.26584 1.00000 60 200 60
0.87460 0.46979 1.00000 60 200 60
-0.11103 -0.38960 1.00000 60 200 60
0.49297 -0.73579 1.00000 60 200 60
0.64162 -0.80981 1.00000 60 200 60
0.95913 0.83101 1.00000 60 200 60
0.80742 0.72518 1.00000 60 200 60
0.21087 -0.60177 1.00000 60 200 60
-0.15548 -0.56525 1.00000 60 200 60
0.60118 -0.89205 1.00000 60 200 60
0.37025 0.18015 1.00000 60 200 60
0.57491 0.23233 1.00000 60 200 60
0.72524 -0.12990 1.00000 60 200 60
0.97723 -0.06803 1.00000 60 200 60
-0.12634 -0.52785 1.00000 60 200 60
0.81651 0.01569 1.00000 60 200 60
0.76053 0.89806 1.00000 60 200 60
-0.82458 -0.59037 1.00000 60 200 60
0.16278 0.84706 1.00000 60 200 60
-0.34246 0.10889 1.00000 60 200 60
-0.79673 0.53599 1.00000 60 200 60
0.45893 0.93387 1.00000 60 200 60
-0.37112 0.35726 1.00000 60 200 60
-0.70443 -0.38921 1.00000 60 200 60
0.12419 0.25194 1.00000 60 200 60
-0.45937 0.77399 1.00000 60 200 60
-0.87228 0.02173 1.00000 60 200 60
0.04126 0.48066 1.00000 60 200 60
-0.97326 0.27402 1.00000 60 200 60
-0.90239 -0.33791 1.00000 60 200 60
0.70107 0.93802 1.00000 60 200 60
-0.75616 0.51799 1.00000 60 200 60
-0.37219 0.45129 1.00000 60 200 60
-0.09136 -0.06676 1.00000 60 200 60
0.40928 0.75848 1.00000 60 200 60
-0.11537 0.80172 1.00000 60 200 60
-0.83688 0.55926 1.00000 60 200 60
-0.77882 0.78376 1.00000 60 200 60
-0.75840 -0.75247 1.00000 60 200 60
-0.67379 0.75839 1.00000 60 200 60
-0.99821 0.78895 1.00000 60 200 60
-0.30025 0.36838 1.00000 60 200 60
0.79407 0.97495 1.00000 60 200 60
-0.51834 -0.46034 1.00000 60 200 60
0.55354 0.83958 1.00000 60 200 60
-0.82128 0.78232 1.00000 60 200 60
-0.92767 0.38486 1.00000 60 200 60
-0.89668 -0.88582 1.00000 60 200 60
-0.60296 0.18519 1.00000 60 200 60
-0.69882 0.82408 1.00000 60 200 60
0.60193 0.71639 1.00000 60 200 60
-0.54422 -0.39981 1.00000 60 200 60
-0.67596 -0.07220 1.00000 60 200 60
-0.59644 -0.51613 1.00000 60 200 60
0.00906 0.25891 1.00000 60 200 60
-0.26002 0.24960 1.00000 60 200 60
0.68957 0.98731 1.00000 60 200 60
-0.61392 0.85533 1.00000 60 200 60
0.41981 0.96133 1.00000 60 200 60
-0.22309 -0.18350 1.00000 60 200 60
0.23262 0.34162 1.00000 60 200 60
0.76829 0.85299 1.00000 60 200 60
-0.65374 0.76541 1.00000 60 200 60
-0.63293 -0.44949 1.00000 60 200 60
0.08288 0.12282 1.00000 60 200 60
-0.27282 0.15902 1.00000 60 200 60
-0.70974 0.43509 1.00000 60 200 60
0.39731 0.50527 1.00000 60 200 60
-0.39955 0.44441 1.00000 60 200 60
-0.88119 -0.17966 1.00000 60 200 60
0.01671 0.31358 1.00000 60 200 60
-0.05166 0.75641 1.00000 60 200 60
-0.73181 -0.49338 1.00000 60 200 60
-0.39059 0.16556 1.00000 60 200 60
-0.22198 0.92222 1.00000 60 200 60
0.17638 0.90712 1.00000 60 200 60
-0.56474 -1.00000 0.25282 60 60 200
-0.36592 -1.00000 0.81069 60 60 200
-0.16320 -1.00000 -0.09108 60 60 200
-0.54881 -1.00000 0.39945 60 60 200
-0.13154 -1.00000 0.72354 60 60 200
-0.29590 -1.00000 0.30010 60 60 200
-0.36757 -1.00000 0.93729 60 60 200
-0.09829 -1.00000 0.32685 60 60 200
-0.25202 -1.00000 0.88514 60 60 200
0.02548 -1.00000 0.74679 60 60 200
-0.77281 -1.00000 -0.24622 60 60 200
-0.00727 -1.00000 0.15062 60 60 200
-0.59974 -1.00000 0.35971 60 60 200
-0.67476 -1.00000 0.69633 60 60 200
-0.76829 -1.00000 0.22000 60 60 200
0.68399 -1.00000 0.82810 60 60 200
-0.43878 -1.00000 -0.32764 60 60 200
-0.65401 -1.00000 0.01425 60 60 200
-0.48539 -1.00000 0.88683 60 60 200
0.65435 -1.00000 0.68371 60 60 200
0.25548 -1.00000 0.54238 60 60 200
0.20168 -1.00000 0.50891 60 60 200
-0.27016 -1.00000 -0.03082 60 60 200
-0.99093 -1.00000 -0.90779 60 60 200
0.37808 -1.00000 0.83387 60 60 200
-0.41081 -1.00000 0.21386 60 60 200
-0.28178 -1.00000 0.94254 60 60 200
-0.58188 -1.00000 -0.56043 60 60 200
-0.67250 -1.00000 0.37768 60 60 200
-0.67261 -1.00000 0.99558 60 60 200
-0.11194 -1.00000 -0.09020 60 60 200
-0.98064 -1.00000 -0.65878 60 60 200
-0.10351 -1.00000 0.17968 60 60 200
-0.83990 -1.00000 -0.05476 60 60 200
0.13244 -1.00000 0.62178 60 60 200
-0.69865 -1.00000 0.24000 60 60 200
-0.81421 -1.00000 0.82394 60 60 200
-0.53430 -1.00000 -0.44500 60 60 200
-0.01960 -1.00000 0.56451 60 60 200
0.01342 -1.00000 0.84053 60 60 200
-0.51267 -1.00000 -0.34443 60 60 200
-0.27518 -1.00000 0.03765 60 60 200
-0.34041 -1.00000 0.36130 60 60 200
-0.88378 -1.00000 0.64202 60 60 200
0.07905 -1.00000 0.81227 60 60 200
-0.68896 -1.00000 0.63413 60 60 200
-0.53726 -1.00000 0.49760 60 60 200
-0.00958 -1.00000 0.28639 60 60 200
-0.17425 -1.00000 0.00665 60 60 200
0.31882 -1.00000 0.61827 60 60 200
-0.06282 -1.00000 0.93954 60 60 200
-0.20289 -1.00000 0.00706 60 60 200
-0.26166 -1.00000 -0.09634 60 60 200
-0.32229 -1.00000 0.03272 60 60 200
-0.95035 -1.00000 -0.56715 60 60 200
0.10359 -1.00000 0.24866 60 60 200
0.19695 -1.00000 0.81202 60 60 200
-0.44396 -1.00000 -0.42933 60 60 200
-0.26754 -1.00000 0.32639 60 60 200
-0.24072 -1.00000 -0.20433 60 60 200
0.52212 -1.00000 0.04499 60 60 200
-0.24805 -1.00000 -0.80666 60 60 200
-0.49043 -1.00000 -0.92642 60 60 200
0.96181 -1.00000 0.73360 60 60 200
0.65500 -1.00000 -0.46483 60 60 200
0.58559 -1.00000 -0.10621 60 60 200
-0.90879 -1.00000 -0.93963 60 60 200
0.95604 -1.00000 0.42354 60 60 200
0.80705 -1.00000 -0.49997 60 60 200
-0.67037 -1.00000 -0.75226 60 60 200
0.46591 -1.00000 -0.55469 60 60 200
0.09897 -1.00000 -0.97108 60 60 200
0.22101 -1.00000 -0.95583 60 60 200
0.75700 -1.00000 0.58736 60 60 200
0.28496 -1.00000 -0.11092 60 60 200
-0.49457 -1.00000 -0.84940 60 60 200
-0.18065 -1.00000 -0.92606 60 60 200
-0.68404 -1.00000 -0.90260 60 60 200
0.22287 -1.00000 -0.35061 60 60 200
-0.27835 -1.00000 -0.54744 60 60 200
-0.08061 -1.00000 -0.47886 60 60 200
-0.43300 -1.00000 -0.90207 60 60 200
0.03995 -1.00000 -0.24380 60 60 200
0.03826 -1.00000 -0.99100 60 60 200
0.41379 -1.00000 0.35457 60 60 200
0.40602 -1.00000 0.19729 60 60 200
0.81854 -1.00000 0.34323 60 60 200
0.59837 -1.00000 -0.70556 60 60 200
0.69542 -1.00000 -0.70669 60 60 200
0.97452 -1.00000 0.18064 60 60 200
0.67723 -1.00000 0.45035 60 60 200
-0.45519 -1.00000 -0.62481 60 60 200
0.88087 -1.00000 0.31615 60 60 200
-0.61235 -1.00000 -0.61486 60 60 200
0.40861 -1.00000 -0.40728 60 60 200
0.42339 -1.00000 -0.72636 60 60 200
-0.39692 -1.00000 -0.99516 60 60 200
0.97516 -1.00000 0.19043 60 60 200
0.17557 -1.00000 -0.83060 60 60 200
-0.00051 -1.00000 -0.73127 60 60 200
-0.46171 -1.00000 -0.86567 60 60 200
-0.05810 -1.00000 -0.96466 60 60 200
0.95567 -1.00000 0.26908 60 60 200
0.24082 -1.00000 0.15924 60 60 200
0.41436 -1.00000 -0.50393 60 60 200
0.63692 -1.00000 0.43092 60 60 200
0.12088 -1.00000 -0.52981 60 60 200
0.12279 -1.00000 -0.81813 60 60 200
0.33387 -1.00000 -0.48464 60 60 200
0.90565 -1.00000 0.30688 60 60 200
0.12773 -1.00000 -0.51726 60 60 200
0.94049 -1.00000 0.68912 60 60 200
0.68947 -1.00000 -0.43351 60 60 200
-0.15160 -1.00000 -0.58395 60 60 200
0.82929 -1.00000 -0.12323 60 60 200
-0.33860 -1.00000 -0.98940 60 60 200
-0.43438 -1.00000 -0.62928 60 60 200
0.94554 -1.00000 0.57518 60 60 200
0.32813 -1.00000 0.12434 60 60 200
-0.21654 -1.00000 -0.30584 60 60 200
0.89141 1.00000 -0.13406 220 180 60
0.99123 1.00000 0.91955 220 180 60
-0.71184 1.00000 -0.91784 220 180 60
-0.37681 1.00000 -0.86894 220 180 60
0.94241 1.00000 0.03218 220 180 60
-0.27294 1.00000 -0.89808 220 180 60
-0.00779 1.00000 -0.23099 220 180 60
0.51744 1.00000 0.39638 220 180 60
0.01818 1.00000 -0.39586 220 180 60
0.62147 1.00000 -0.16678 220 180 60
-0.77254 1.00000 -0.77586 220 180 60
0.72800 1.00000 -0.99753 220 180 60
0.99534 1.00000 -0.02100 220 180 60
0.52884 1.00000 -0.13735 220 180 60
-0.24357 1.00000 -0.68241 220 180 60
0.16568 1.00000 -0.35502 220 180 60
0.44469 1.00000 -0.04027 220 180 60
0.82302 1.00000 -0.54349 220 180 60
0.47776 1.00000 -0.86077 220 180 60
0.01868 1.00000 -0.07846 220 180 60
0.72402 1.00000 -0.69909 220 180 60
-0.62884 1.00000 -0.72359 220 180 60
0.85617 1.00000 -0.98148 220 180 60
-0.56079 1.00000 -0.93743 220 180 60
0.46156 1.00000 0.24030 220 180 60
0.62170 1.00000 0.13842 220 180 60
0.12074 1.00000 -0.69887 220 180 60
0.71622 1.00000 0.70674 220 180 60
0.56373 1.00000 -0.67451 220 180 60
-0.25686 1.00000 -0.71098 220 180 60
0.65389 1.00000 -0.83759 220 180 60
0.88424 1.00000 -0.20685 220 180 60
0.30763 1.00000 0.27693 220 180 60
0.73688 1.00000 0.36320 220 180 60
0.20011 1.00000 -0.20147 220 180 60
0.26076 1.00000 -0.17195 220 180 60
-0.20851 1.00000 -0.84378 220 180 60
-0.24737 1.00000 -0.30704 220 180 60
-0.63096 1.00000 -0.66902 220 180 60
0.13345 1.00000 -0.41618 220 180 60
0.88853 1.00000 0.36569 220 180 60
0.03230 1.00000 -0.18766 220 180 60
-0.46051 1.00000 -0.71256 220 180 60
0.73208 1.00000 -0.65411 220 180 60
0.00187 1.00000 -0.98355 220 180 60
-0.95883 1.00000 -0.96684 220 180 60
-0.15545 1.00000 -0.16928 220 180 60
0.95158 1.00000 -0.79460 220 180 60
0.16684 1.00000 -0.07240 220 180 60
0.78996 1.00000 -0.45363 220 180 60
0.29017 1.00000 0.18914 220 180 60
0.91675 1.00000 0.32724 220 180 60
0.70881 1.00000 -0.96368 220 180 60
0.65399 1.00000 -0.53744 220 180 60
0.74489 1.00000 0.49267 220 180 60
0.67138 1.00000 -0.10708 220 180 60
0.85243 1.00000 -0.35524 220 180 60
0.41459 1.00000 -0.13388 220 180 60
-0.48368 1.00000 -0.96683 220 180 60
0.86771 1.00000 0.02917 220 180 60
-0.97506 1.00000 0.61700 220 180 60
0.04046 1.00000 0.85638 220 180 60
-0.81186 1.00000 0.96746 220 180 60
0.20999 1.00000 0.84482 220 180 60
0.70125 1.00000 0.77815 220 180 60
-0.64312 1.00000 -0.24403 220 180 60
-0.71797 1.00000 -0.54313 220 180 60
-0.57571 1.00000 0.36390 220 180 60
-0.46699 1.00000 -0.22372 220 180 60
-0.24189 1.00000 0.79214 220 180 60
-0.48343 1.00000 0.05430 220 180 60
-0.56592 1.00000 0.29421 220 180 60
0.79077 1.00000 0.98282 220 180 60
-0.73115 1.00000 -0.32734 220 180 60
-0.80028 1.00000 -0.39148 220 180 60
0.48720 1.00000 0.53348 220 180 60
-0.95845 1.00000 0.28726 220 180 60
-0.43863 1.00000 -0.21377 220 180 60
-0.21074 1.00000 0.42752 220 180 60
-0.21748 1.00000 0.62054 220 180 60
0.18172 1.00000 0.97817 220 180 60
-0.87076 1.00000 0.19396 220 180 60
-0.60652 1.00000 0.14790 220 180 60
-0.21179 1.00000 0.05043 220 180 60
-0.67426 1.00000 0.69487 220 180 60
0.32104 1.00000 0.41125 220 180 60
-0.51281 1.00000 -0.31496 220 180 60
-0.50701 1.00000 -0.26908 220 180 60
-0.44377 1.00000 -0.03960 220 180 60
-0.62847 1.00000 0.41556 220 180 60
-0.06317 1.00000 0.45571 220 180 60
-0.90965 1.00000 0.05333 220 180 60
-0.91866 1.00000 -0.22370 220 180 60
-0.00899 1.00000 0.21240 220 180 60
-0.49513 1.00000 0.09442 220 180 60
-0.52961 1.00000 -0.28303 220 180 60
-0.80328 1.00000 -0.77242 220 180 60
-0.96473 1.00000 -0.87073 220 180 60
-0.85636 1.00000 -0.58077 220 180 60
-0.39107 1.00000 0.71473 220 180 60
-0.80604 1.00000 0.88555 220 180 60
-0.23351 1.00000 0.68176 220 180 60
-0.66938 1.00000 -0.16287 220 180 60
0.67938 1.00000 0.97551 220 180 60
-0.16846 1.00000 0.36129 220 180 60
-0.40793 1.00000 0.33457 220 180 60
0.19029 1.00000 0.67026 220 180 60
0.54471 1.00000 0.95833 220 180 60
-0.88308 1.00000 0.87561 220 180 60
0.79224 1.00000 0.99304 220 180 60
0.47092 1.00000 0.77796 220 180 60
-0.64102 1.00000 0.18612 220 180 60
-0.10028 1.00000 0.39024 220 180 60
-0.42049 1.00000 -0.12316 220 180 60
-0.74915 1.00000 0.57221 220 180 60
0.06170 1.00000 0.55851 220 180 60
-0.51041 1.00000 -0.18790 220 180 60
-0.88004 1.00000 -0.65602 220 180 60
-0.55472 1.00000 0.40996 220 180 60
0.01878 1.00000 0.95929 220 180 60
-1.00000 0.94226 -0.13087 200 60 200
-1.00000 -0.48516 -0.74867 200 60 200
-1.00000 0.13144 0.03594 200 60 200
-1.00000 0.76644 0.67285 200 60 200
-1.00000 0.52427 -0.58457 200 60 200
-1.00000 -0.43352 -0.93989 200 60 200
-1.00000 0.92840 -0.83370 200 60 200
-1.00000 0.85932 0.21626 200 60 200
-1.00000 0.73093 -0.19910 200 60 200
-1.00000 0.43825 -0.62552 200 60 200
-1.00000 -0.61382 -0.63662 200 60 200
-1.00000 0.57925 0.06248 200 60 200
-1.00000 0.85291 -0.84133 200 60 200
-1.00000 -0.21701 -0.89979 200 60 200
-1.00000 0.72628 -0.58891 200 60 200
-1.00000 0.25291 -0.50168 200 60 200
-1.00000 0.98882 0.57609 200 60 200
-1.00000 0.27645 0.12402 200 60 200
-1.00000 0.28264 -0.99538 200 60 200
-1.00000 0.45147 0.43821 200 60 200
-1.00000 0.04065 -0.08348 200 60 200
-1.00000 -0.43729 -0.69535 200 60 200
-1.00000 0.94958 0.21415 200 60 200
-1.00000 0.51798 0.36169 200 60 200
-1.00000 0.62544 0.07780 200 60 200
-1.00000 0.48071 -0.19939 200 60 200
-1.00000 0.15431 -0.90012 200 60 200
-1.00000 0.03990 -0.64553 200 60 200
-1.00000 -0.04820 -0.69202 200 60 200
-1.00000 -0.02023 -0.10073 200 60 200
-1.00000 -0.28421 -0.49924 200 60 200
-1.00000 -0.04644 -0.06283 200 60 200
-1.00000 0.92495 -0.39504 200 60 200
-1.00000 0.37226 0.26733 200 60 200
-1.00000 0.71670 0.19372 200 60 200
-1.00000 0.43680 -0.43957 200 60 200
-1.00000 0.16796 -0.81417 200 60 200
-1.00000 0.86725 -0.29414 200 60 200
-1.00000 0.50104 -0.18369 200 60 200
-1.00000 0.13171 -0.74839 200 60 200
-1.00000 0.51843 0.33498 200 60 200
-1.00000 0.36315 -0.32582 200 60 200
-1.00000 -0.30737 -0.34691 200 60 200
-1.00000 0.95192 0.55630 200 60 200
-1.00000 0.78538 0.50664 200 60 200
-1.00000 0.59442 -0.74127 200 60 200
-1.00000 -0.17239 -0.72269 200 60 200
-1.00000 0.91651 0.34947 200 60 200
-1.00000 0.77430 0.59496 200 60 200
-1.00000 0.51306 -0.40278 200 60 200
-1.00000 -0.12597 -0.22012 200 60 200
-1.00000 0.76117 0.25096 200 60 200
-1.00000 0.40676 -0.95226 200 60 200
-1.00000 0.82979 -0.37086 200 60 200
-1.00000 -0.15342 -0.19988 200 60 200
-1.00000 0.02933 -0.22045 200 60 200
-1.00000 0.24024 -0.87187 200 60 200
-1.00000 0.64760 0.35557 200 60 200
-1.00000 0.93125 0.02035 200 60 200
-1.00000 0.93263 -0.33178 200 60 200
-1.00000 0.51159 0.68625 200 60 200
-1.00000 -0.84775 -0.53439 200 60 200
-1.00000 -0.95641 -0.44639 200 60 200
-1.00000 -0.52933 -0.05451 200 60 200
-1.00000 -0.03878 0.87412 200 60 200
-1.00000 -0.51955 0.77009 200 60 200
-1.00000 -0.42136 0.09426 200 60 200
-1.00000 0.17192 0.99189 200 60 200
-1.00000 0.56229 0.93017 200 60 200
-1.00000 -0.72114 0.94346 200 60 200
-1.00000 -0.98499 -0.31273 200 60 200
-1.00000 -0.59502 -0.27337 200 60 200
-1.00000 -0.72334 0.82533 200 60 200
-1.00000 -0.76859 0.01153 200 60 200
-1.00000 -0.99722 0.61760 200 60 200
-1.00000 -0.69207 0.15353 200 60 200
-1.00000 -0.23934 -0.10514 200 60 200
-1.00000 -0.96164 0.89908 200 60 200
-1.00000 -0.72400 0.85747 200 60 200
-1.00000 0.45874 0.68904 200 60 200
-1.00000 0.32691 0.55060 200 60 200
-1.00000 -0.66506 0.98223 200 60 200
-1.00000 -0.15301 0.95136 200 60 200
-1.00000 -0.00153 0.62614 200 60 200
-1.00000 -0.30537 -0.28946 200 60 200
-1.00000 -0.99884 -0.03176 200 60 200
-1.00000 -0.80960 0.64608 200 60 200
-1.00000 -0.95333 0.41002 200 60 200
-1.00000 -0.07758 0.77197 200 60 200
-1.00000 -0.89716 0.44737 200 60 200
-1.00000 0.29332 0.71840 200 60 200
-1.00000 -0.66424 -0.30670 200 60 200
-1.00000 -0.16667 0.47642 200 60 200
-1.00000 -0.49764 -0.10042 200 60 200
-1.00000 0.01749 0.23142 200 60 200
-1.00000 0.71218 0.95405 200 60 200
-1.00000 -0.80781 -0.50076 200 60 200
-1.00000 0.06768 0.20272 200 60 200
-1.00000 -0.89439 -0.89335 200 60 200
-1.00000 0.12737 0.57812 200 60 200
-1.00000 -0.93032 0.37419 200 60 200
-1.00000 0.64625 0.98226 200 60 200
-1.00000 0.70627 0.98467 200 60 200
-1.00000 -0.64625 0.27587 200 60 200
-1.00000 0.63840 0.82391 200 60 200
-1.00000 0.21104 0.73544 200 60 200
-1.00000 0.48510 0.98044 200 60 200
-1.00000 -0.00836 0.49111 200 60 200
-1.00000 -0.07064 0.66517 200 60 200
-1.00000 -0.56162 -0.14486 200 60 200
-1.00000 0.50298 0.74080 200 60 200
-1.00000 -0.82804 -0.47545 200 60 200
-1.00000 -0.64931 0.99691 200 60 200
-1.00000 0.20299 0.22221 200 60 200
-1.00000 -0.72558 0.58150 200 60 200
-1.00000 -0.10254 0.68330 200 60 200
-1.00000 -0.75017 -0.70136 200 60 200
-1.00000 -0.74572 0.86968 200 60 200
-1.00000 -0.55840 0.75374 200 60 200
-1.00000 0.42183 0.95238 200 60 200
1.00000 -0.10182 0.76534 60 200 200
1.00000 -0.42107 -0.07816 60 200 200
1.00000 -0.90108 -0.84793 60 200 200
1.00000 0.02762 0.82450 60 200 200
1.00000 -0.16269 0.35768 60 200 200
1.00000 -0.65322 -0.16904 60 200 200
1.00000 -0.22926 0.89319 60 200 200
1.00000 0.04384 0.58523 60 200 200
1.00000 0.12819 0.75769 60 200 200
1.00000 -0.86784 0.48546 60 200 200
1.00000 -0.57545 -0.57331 60 200 200
1.00000 -0.29258 -0.08160 60 200 200
1.00000 -0.78053 0.87555 60 200 200
1.00000 -0.04782 0.89210 60 200 200
1.00000 -0.88103 0.99006 60 200 200
1.00000 0.17154 0.60190 60 200 200
1.00000 0.35905 0.75003 60 200 200
1.00000 -0.80169 -0.37350 60 200 200
1.00000 -0.15453 0.25944 60 200 200
1.00000 -0.73062 -0.37834 60 200 200
1.00000 0.35921 0.63864 60 200 200
1.00000 -0.88946 -0.16794 60 200 200
1.00000 -0.47039 0.24435 60 200 200
1.00000 -0.58922 0.63175 60 200 200
1.00000 -0.85933 -0.63606 60 200 200
1.00000 -0.78519 -0.58553 60 200 200
1.00000 0.23914 0.46979 60 200 200
1.00000 0.70476 0.94870 60 200 200
1.00000 -0.63962 -0.14816 60 200 200
1.00000 -0.99335 -0.04548 60 200 200
1.00000 -0.19747 -0.10912 60 200 200
1.00000 -0.89729 0.45484 60 200 200
1.00000 -0.61238 0.23390 60 200 200
1.00000 -0.95727 0.70205 60 200 200
1.00000 -0.01266 0.98462 60 200 200
1.00000 0.23854 0.29677 60 200 200
1.00000 0.16951 0.96456 60 200 200
1.00000 -0.35783 -0.10172 60 200 200
1.00000 -0.79343 -0.40702 60 200 200
1.00000 -0.17866 0.08905 60 200 200
1.00000 -0.18266 0.53468 60 200 200
1.00000 -0.26630 0.87066 60 200 200
1.00000 -0.86556 -0.71910 60 200 200
1.00000 -0.34148 0.44151 60 200 200
1.00000 -0.13587 0.96204 60 200 200
1.00000 -0.31751 0.75886 60 200 200
1.00000 -0.35857 0.75023 60 200 200
1.00000 -0.24281 0.44865 60 200 200
1.00000 -0.66787 -0.47860 60 200 200
1.00000 0.22181 0.77558 60 200 200
1.00000 0.12534 0.55442 60 200 200
1.00000 0.48516 0.97408 60 200 200
1.00000 -0.85501 -0.50859 60 200 200
1.00000 -0.33790 0.46732 60 200 200
1.00000 0.89104 0.99619 60 200 200
1.00000 -0.84780 0.36723 60 200 200
1.00000 -0.99076 0.16719 60 200 200
1.00000 0.36084 0.43792 60 200 200
1.00000 -0.94694 0.17840 60 200 200
1.00000 -0.70429 -0.19121 60 200 200
1.00000 0.92435 -0.00717 60 200 200
1.00000 0.58425 -0.98905 60 200 200
1.00000 0.58104 0.33857 60 200 200
1.00000 0.87628 -0.25388 60 200 200
1.00000 -0.13814 -0.45932 60 200 200
1.00000 0.45700 -0.54982 60 200 200
1.00000 -0.00381 -0.07298 60 200 200
1.00000 -0.63844 -0.92716 60 200 200
1.00000 0.56376 -0.62478 60 200 200
1.00000 0.49478 -0.75629 60 200 200
1.00000 0.82414 -0.79779 60 200 200
1.00000 0.90769 0.03647 60 200 200
1.00000 -0.17871 -0.96429 60 200 200
1.00000 0.58993 -0.15004 60 200 200
1.00000 0.07204 -0.16476 60 200 200
1.00000 -0.26493 -0.58950 60 200 200
1.00000 0.17639 -0.43121 60 200 200
1.00000 0.79661 0.74867 60 200 200
1.00000 0.96827 0.04091 60 200 200
1.00000 0.70704 0.38025 60 200 200
1.00000 0.90987 -0.33666 60 200 200
1.00000 0.31762 0.23743 60 200 200
1.00000 0.96796 -0.07655 60 200 200
1.00000 -0.29210 -0.57135 60 200 200
1.00000 0.06523 -0.62305 60 200 200
1.00000 0.91174 0.80638 60 200 200
1.00000 0.57207 0.19001 60 200 200
1.00000 0.88970 -0.94883 60 200 200
1.00000 -0.04616 -0.30334 60 200 200
1.00000 0.87348 -0.26847 60 200 200
1.00000 -0.06605 -0.13785 60 200 200
1.00000 -0.05629 -0.06920 60 200 200
1.00000 0.99821 0.91742 60 200 200
1.00000 0.98488 -0.41159 60 200 200
1.00000 0.89621 0.80598 60 200 200
1.00000 -0.54670 -0.87175 60 200 200
1.00000 -0.64534 -0.76499 60 200 200
1.00000 0.98093 0.66942 60 200 200
1.00000 0.09871 -0.06980 60 200 200
1.00000 0.92936 0.13490 60 200 200
1.00000 0.01627 -0.10997 60 200 200
1.00000 0.44119 -0.93750 60 200 200
1.00000 -0.04918 -0.62127 60 200 200
1.00000 0.88268 -0.92875 60 200 200
1.00000 -0.15029 -0.73461 60 200 200
1.00000 -0.61183 -0.66004 60 200 200
1.00000 -0.57107 -0.68431 60 200 200
1.00000 0.84545 -0.74613 60 200 200
1.00000 0.82166 -0.09135 60 200 200
1.00000 -0.74145 -0.79784 60 200 200
1.00000 0.62445 -0.40968 60 200 200
1.00000 0.68549 -0.08719 60 200 200
1.00000 0.50621 -0.27680 60 200 200
1.00000 -0.66562 -0.82049 60 200 200
1.00000 0.54811 -0.55974 60 200 200
1.00000 -0.08581 -0.86137 60 200 200
1.00000 -0.61460 -0.92965 60 200 200
1.00000 0.63689 0.58836 60 200 200
1.00000 0.46892 -0.56259 60 200 200
1.00000 -0.82674 -0.87235 60 200 200
